ply
format ascii 1.0
element vertex 1000
property float x
property float y
property float z
end_header
89.575489 71.964779 119.433617
53.256949 22.759069 118.024774
54.368872 20.001841 120.300297
98.715495 63.539389 214.048794
74.996295 9.295855 121.749163
94.417434 32.144127 139.589151
91.045233 78.622803 213.074608
93.793763 62.582145 199.657016
116.831414 58.108602 107.723195
85.462526 53.223942 50.860572
65.926092 47.997936 189.521733
73.966073 71.639362 112.845631
50.019679 41.009610 115.772195
78.786871 14.006036 131.204905
89.272081 70.714359 121.445336
70.175225 57.525912 206.568038
61.446052 24.197764 144.357844
84.603557 68.633949 187.398851
77.909985 55.698766 167.588683
58.061175 35.261114 59.085248
107.821589 46.990684 34.127873
59.614169 65.275801 50.285802
85.008307 71.114156 67.112823
91.471964 42.268902 33.564056
101.704476 72.371094 79.223595
106.234366 44.588620 45.527994
69.293205 57.573001 142.614593
73.832855 66.585101 170.527721
98.354444 53.149303 136.995517
108.818410 27.245037 118.016851
84.637548 75.107521 111.906876
50.782189 74.765393 63.333556
94.877545 56.942020 45.034065
110.032997 66.535001 111.124608
68.534356 34.616229 166.077356
102.830586 36.601967 134.267776
63.697880 68.557982 72.494692
72.195147 48.090930 159.144427
45.823652 47.107909 147.132576
75.468032 56.822249 64.091494
116.548164 59.046472 87.749006
56.016334 31.499592 101.900163
104.423696 69.018221 115.542062
67.707596 12.744760 114.203616
109.752399 26.781797 109.305162
58.743892 58.545742 165.570069
60.572228 43.963898 75.894094
91.812788 76.574347 84.893837
72.141719 13.708116 101.263140
56.062944 67.463994 50.312036
47.850265 42.266082 57.189954
100.116419 34.142073 64.713155
79.278596 52.614806 211.552576
60.889345 51.178487 154.629207
71.021412 50.262121 158.201735
57.658754 52.586571 96.370506
63.576290 30.224523 86.305226
80.965503 53.136547 174.150508
67.597976 35.225430 168.640984
80.487283 48.047392 204.461695
72.829087 47.280224 160.041706
73.242427 51.568756 204.280417
57.858230 38.209413 172.433567
56.457344 55.966122 165.302698
48.472901 46.329560 134.126475
103.386662 70.357786 114.564906
26.306544 68.053738 50.478451
31.392631 77.950986 48.272365
55.160242 50.127085 102.356293
74.452570 43.258224 177.678690
90.778588 57.464353 50.433980
105.499081 33.451245 70.620371
95.862600 65.938322 126.550848
93.988166 57.404639 211.710428
70.252259 55.595774 148.553686
117.492903 56.430526 88.179838
80.984914 22.672839 80.688388
80.302738 72.854575 115.175878
62.581268 67.752017 174.580083
65.000899 30.955942 65.506886
63.613351 48.950428 189.046582
116.695452 58.632605 83.806860
72.803517 18.284769 91.511805
59.893257 53.378513 187.350517
101.097322 31.200705 69.738683
91.457558 76.311994 108.100446
61.356590 41.154365 78.721232
67.617298 66.342560 199.898106
115.992237 47.183244 112.587519
59.501075 60.073974 47.866108
108.004751 65.115206 73.645877
97.308388 58.594764 213.981875
103.346494 68.995282 116.661922
108.450747 65.559615 114.643353
43.040258 45.190384 61.707781
73.990593 45.732879 186.461243
67.172998 67.227705 71.615313
94.236914 19.565287 85.880488
105.953730 52.249562 130.255371
81.822887 57.909246 57.653296
35.906229 64.315296 68.927226
88.295627 28.607790 140.848290
93.341659 55.767190 206.345635
68.567144 57.677153 144.062448
29.412923 65.860616 50.530624
88.924158 62.735330 132.886271
53.549644 52.648569 117.025609
91.028405 39.726773 142.211317
75.819326 13.622943 131.233925
88.098333 46.751007 47.556549
51.132032 75.300793 58.572280
80.462241 68.664746 182.724223
94.428948 16.204941 92.583357
65.804896 31.600081 61.675286
74.744032 8.701521 123.893341
77.660796 78.085620 217.359873
110.204498 45.616812 67.948650
75.914596 53.526083 146.974447
53.696441 45.559201 102.194214
59.116301 56.698833 130.354070
85.375219 15.862453 91.007804
91.147794 67.232762 126.155264
84.442171 75.693068 92.755007
77.812742 68.131776 69.413576
31.308386 79.019603 57.759857
70.108199 20.511938 89.900620
95.585814 76.522985 100.492602
104.451556 41.388439 45.480096
109.867699 32.905234 121.548738
58.914137 71.966962 58.983461
99.488316 65.951291 124.612078
94.534837 75.663596 88.197050
114.710628 31.614034 95.979289
79.161679 74.102750 86.882295
49.133142 43.231657 120.567339
82.429612 30.767661 143.899573
70.733277 43.541487 182.049995
60.234293 59.786868 117.588980
95.394500 57.239360 49.581309
70.981346 70.850503 105.219253
88.219389 76.906782 95.630824
100.977702 69.126146 222.806735
109.205155 69.417862 93.151646
90.465646 75.636118 204.313612
95.000388 13.245420 108.001205
97.939173 24.866808 133.003701
66.337691 66.875286 84.826035
27.255646 75.993914 45.696363
58.837331 18.533673 133.107967
50.848955 27.783221 135.578155
87.679760 68.427329 62.158485
73.137935 35.953646 153.182914
74.070462 46.168694 151.943987
87.491436 80.560531 220.421508
110.280983 59.792970 70.029421
62.514294 62.311903 70.649191
81.406726 38.671325 60.263417
85.339465 46.110189 49.730305
92.065737 52.750348 217.432785
85.617244 51.823561 208.586429
61.143671 62.039769 109.989521
108.414459 70.308851 104.697818
79.834053 54.854334 170.251856
81.480566 70.894081 188.645745
71.194848 45.956375 188.308062
89.401129 53.165396 207.849184
90.916247 59.133264 52.535236
93.619397 62.810969 199.452441
79.194613 34.532817 64.028737
50.765209 29.262094 150.877926
94.505248 55.380725 37.714445
115.976655 33.941147 100.009807
52.171273 26.146706 115.490923
105.661046 65.332154 66.645712
99.943595 70.764894 219.506162
77.368645 51.159830 166.490869
55.148761 18.316556 131.034321
95.297998 60.708009 208.555125
81.016787 27.549614 71.477641
96.572375 17.522539 126.307922
106.344265 41.202785 64.045779
62.576553 69.190949 56.622448
47.287177 29.369906 129.696115
53.941259 35.172445 166.578434
79.672536 38.477239 148.163850
77.819396 46.708517 176.171781
112.642407 62.997107 111.133503
74.301742 41.005184 166.916330
110.765430 67.366218 91.774951
70.196680 56.739767 68.191772
87.912745 56.804152 186.935933
57.206266 35.538914 66.153323
65.649970 67.545308 99.235300
94.528038 16.068676 125.431107
59.498757 25.932641 98.724881
101.229244 61.640342 128.565760
49.688467 30.406405 116.495878
47.502222 50.472172 145.936504
99.307759 75.456826 102.442947
37.982550 57.853748 49.061010
94.351257 28.987812 138.478762
76.880512 47.568080 191.693792
37.113091 67.921890 69.422304
62.335507 54.946001 150.925947
46.592918 50.207985 70.993371
50.246769 42.921665 166.866984
51.330376 34.485800 162.754218
77.916731 49.875426 205.903175
42.913359 49.933321 49.818568
63.559910 50.234642 190.185112
77.028475 67.582209 173.599143
105.411482 22.659057 119.285056
63.244243 62.894222 167.483792
72.888204 65.819171 223.396255
111.136724 28.092437 106.022671
64.982342 31.868437 162.935279
107.236678 71.104707 93.483077
68.418764 53.888203 59.850903
71.289418 44.150499 157.076526
67.498686 53.267969 57.177139
106.966023 23.359711 92.262747
49.935811 46.661321 131.969646
103.123364 47.553387 135.219357
61.373181 38.759847 174.765349
67.427033 71.235753 72.867114
52.371969 40.478987 171.557700
104.979992 66.104719 118.530807
97.451954 66.578946 210.805672
51.695687 22.524405 132.067267
80.013975 66.490659 179.091484
68.250229 21.579974 90.006650
49.309590 39.610632 117.775938
105.020182 22.396451 120.271572
70.630117 33.899619 157.787965
96.664656 55.726452 216.268846
89.225429 36.702161 142.752700
76.045505 54.742727 142.315272
45.994394 46.759692 149.034449
58.156121 52.298321 48.121697
80.812891 18.361242 136.465210
108.473495 38.358974 69.129082
66.698426 59.103507 64.861334
119.288718 51.749555 98.540992
105.613288 46.286279 57.468521
118.972584 42.436997 93.583271
97.386583 36.406252 57.226182
73.569903 41.358179 172.580590
47.627194 42.041748 60.249683
78.675231 25.677102 74.930880
95.234392 16.049535 93.652716
70.670415 52.373058 202.465261
53.251049 70.004424 70.968521
80.893230 11.845253 104.993230
84.989568 75.618397 81.420668
45.047069 67.833912 72.313751
118.911153 47.887369 89.338879
115.865127 44.573917 79.545320
80.420625 71.247737 118.468038
49.604725 33.902241 159.526205
46.496253 44.696327 158.058815
73.281080 38.175483 58.022492
68.621144 59.802370 70.388716
92.069135 77.280217 93.747543
97.731156 16.691510 100.664203
109.990276 63.670701 76.735542
90.636897 62.461342 193.980580
85.143451 49.992183 197.962414
48.710637 47.732866 134.189313
108.668875 63.529210 71.520053
53.343656 25.111986 134.934018
66.915931 40.674853 177.780026
40.054723 65.060118 46.630509
49.801068 42.887220 117.922259
53.672975 52.112995 166.155640
72.373693 72.414701 101.209343
78.468987 28.868723 144.837711
73.799914 74.203671 198.325547
67.898780 68.792945 79.151848
99.732023 25.535099 77.620212
65.237732 47.724368 188.678982
53.819118 47.758808 105.737371
94.968749 59.642636 206.809624
85.630477 52.492457 182.894811
93.345900 71.709846 119.148288
50.926980 43.892107 113.624815
62.330541 37.202063 79.570364
99.058220 58.982715 221.254391
59.920762 24.891230 145.613545
79.582804 10.449150 111.140987
70.387953 30.240153 64.727933
45.960059 47.645262 143.984202
43.211887 69.280738 71.110884
64.927737 64.126702 92.003303
91.222416 54.848801 45.540956
92.336415 13.922642 122.997227
86.335489 73.139211 195.647806
72.014958 72.170525 207.309971
57.012269 40.999970 51.730957
94.662018 73.535238 208.309469
67.691037 58.411667 60.779676
58.455200 43.532896 86.003245
98.604748 65.083835 213.866649
93.630908 32.097350 64.742717
61.808745 37.110724 81.767572
54.923954 35.753192 98.834905
59.673734 24.578436 101.437093
52.101547 41.789495 171.988001
75.217088 53.980500 210.393360
66.339875 39.277736 175.375310
45.431185 44.769926 149.431248
48.770570 30.257045 122.309320
46.941020 47.561705 49.541109
24.958005 67.860046 51.997511
74.463977 56.185923 212.933887
72.054689 63.863707 70.363198
101.608605 73.609304 105.584558
85.818229 10.796935 121.630898
50.891491 40.225308 167.076722
66.655666 64.589900 56.726802
60.161432 41.223394 82.058497
58.697908 57.893557 119.250438
68.759935 65.454697 168.899268
38.770267 66.826607 70.412887
71.947631 61.889206 133.209574
108.823147 25.381126 104.468795
115.146464 61.865500 85.769317
56.414467 41.077978 91.207482
87.919932 51.765581 205.693779
56.592312 56.748720 137.717051
72.685361 72.060525 103.486102
92.190144 41.757658 32.258306
30.488538 61.361316 53.187273
86.408814 11.043510 123.251412
90.416210 27.534987 139.660806
82.452093 13.018592 97.450746
59.480316 46.277852 75.200435
88.457728 48.106325 40.326382
28.427073 83.253934 54.963906
57.991368 17.781860 116.061786
72.284486 73.464031 205.171167
49.377781 45.266114 51.138796
71.182031 32.221793 153.665559
55.720318 32.724386 163.539041
97.168922 44.746422 139.573307
96.860352 16.482532 96.517855
79.874133 74.908978 98.627908
115.618898 41.208662 111.475467
79.356204 76.503710 201.165730
105.084994 24.770751 123.759176
77.475264 47.014355 170.467391
69.252640 70.421289 190.848706
53.382480 61.967734 72.912676
107.080576 53.817627 36.716501
96.881500 15.255348 111.391329
53.294503 30.954976 107.687982
29.730007 63.782636 62.788828
90.988775 77.419240 105.934125
100.236467 67.268822 218.050370
57.711867 57.490284 111.836321
39.905690 76.734459 56.802017
99.751608 61.781194 221.445495
74.513408 60.284136 135.464473
115.607529 56.844628 79.181240
77.544519 17.846813 136.245865
38.768648 75.159486 52.969104
72.927968 10.887155 116.928165
70.233922 57.501711 161.969235
89.425199 20.961186 82.418528
47.390031 34.967247 129.988780
70.953142 71.807398 197.490559
70.956807 64.594167 127.028618
65.210566 15.495055 106.948682
45.433162 37.243120 145.468826
71.701143 72.879974 199.415700
109.955160 66.316963 111.780490
56.726351 62.619781 75.712681
109.307605 40.706175 125.692342
84.564515 71.125093 119.913703
92.693851 15.786820 93.405508
103.081657 55.775923 54.535067
35.805628 62.951708 68.740601
46.831180 72.766337 50.634200
110.221910 54.290607 66.916152
64.622362 63.500538 92.618102
69.910290 59.264553 206.544576
71.785174 41.059500 175.619216
111.605032 47.066774 123.203938
116.455284 60.641468 104.818748
48.787184 33.187332 118.056590
79.518797 28.168359 70.743208
64.449261 10.135050 123.056579
78.739264 46.768050 202.813153
112.220076 28.349913 96.459048
77.266521 49.107371 166.761949
102.680485 55.969299 131.697051
104.516857 69.719503 80.753321
115.927544 60.303682 84.612401
89.019065 55.501999 139.019830
48.283810 31.441128 135.010635
81.109086 31.886163 144.912634
117.957483 56.157223 90.192591
54.385963 49.029507 105.019216
61.017421 23.349903 142.927694
70.608758 35.133384 161.706509
81.660186 50.264787 54.447957
109.090802 43.817002 65.679728
63.303360 17.376499 133.427572
26.858629 65.647000 59.516769
53.630415 45.691401 104.095699
74.215473 63.952857 167.911991
73.940679 57.270525 213.110603
97.955002 35.748533 59.778518
59.691205 32.035666 90.902887
76.940000 77.387686 213.851406
61.116889 34.392443 69.742872
27.141503 70.262188 61.664837
106.693077 46.877621 29.698706
69.559919 26.454924 82.638154
106.736151 67.158014 114.950683
98.547619 75.484139 85.123468
34.563310 76.058986 63.488500
86.085015 31.817934 66.165758
66.103477 58.606989 136.352069
55.048243 24.515337 137.277452
44.226386 65.244750 72.810569
115.764391 53.010656 112.628053
83.086288 68.282681 184.896172
107.864644 26.392257 119.193378
64.969061 38.429700 54.369574
95.447073 58.415647 50.909338
62.392529 61.024357 98.134833
109.584526 49.012126 126.233447
109.975886 69.017265 99.696716
111.836412 35.818009 75.963634
89.433318 75.704681 83.307860
69.272224 59.196499 205.090060
53.805035 25.777125 142.455372
59.298913 66.347381 178.597971
93.191099 74.928606 74.363924
85.378058 57.440938 138.469799
64.107768 69.473086 177.693288
63.574531 57.053025 161.567234
62.698285 14.369146 116.539354
84.812594 50.705673 195.011919
84.474285 75.578527 82.685687
65.558672 28.373900 156.535740
54.113296 25.995239 110.463409
100.595543 72.175366 73.089261
52.844651 71.955768 53.556857
75.213325 49.913871 203.745098
52.442955 40.183441 108.262157
48.439913 37.605197 120.948347
58.252881 47.376409 82.999774
73.529764 31.216995 150.555920
103.662682 68.517062 70.799257
81.076996 79.894627 215.843146
93.053509 16.361727 92.161476
69.477873 48.829147 56.837245
79.521638 64.999150 172.719971
54.220630 64.052846 47.586393
92.796973 73.743126 70.600626
103.655454 71.288069 110.866377
99.571259 24.818848 131.181836
61.542521 12.367342 127.823188
116.056742 34.036310 98.295906
98.300343 65.669884 125.830701
79.307078 69.635386 69.336227
78.438163 55.315234 218.592094
107.750406 55.113163 63.856419
79.369548 68.505920 68.774124
74.142105 42.280788 163.864746
60.905660 43.056560 78.216861
68.815943 31.675373 61.800365
103.075111 40.281701 44.423999
38.816944 67.558313 47.507327
76.976535 10.570257 116.616162
42.422400 65.159871 46.299416
56.805673 47.402173 91.275708
63.692293 62.279896 120.265242
98.677090 75.801239 103.338782
62.523944 53.645853 190.712350
52.957194 53.765373 136.143679
50.705230 45.505878 115.112648
61.643493 58.080492 93.853737
106.720525 49.443750 29.832324
51.654720 31.011368 155.454973
81.293384 46.998644 144.612735
37.542722 54.522384 66.749551
57.100289 56.407292 122.517580
107.151938 49.928457 44.266457
61.398172 56.893396 189.605279
49.585295 35.743186 162.023733
72.843002 60.269684 214.189840
87.783539 25.295291 139.650301
79.709577 74.024108 88.271248
86.339980 59.099958 181.215888
44.286873 53.318690 46.782534
36.991150 51.851108 55.729776
61.963372 51.803019 153.648637
91.831100 53.808418 204.335425
76.377818 47.231537 190.636780
70.559968 10.324646 121.465555
68.978426 27.523402 82.228996
104.713139 40.168487 33.463920
36.348190 77.495842 59.079695
105.138954 47.423188 54.043434
86.691223 19.732343 135.549788
93.428089 74.353520 113.650721
96.115127 65.694707 126.973678
82.449170 37.357843 145.807991
110.618948 64.293393 79.393707
78.582481 73.919892 192.192176
93.791140 14.903468 123.274227
60.234766 59.269351 120.697594
103.013237 40.250943 55.284873
72.612204 63.037931 131.434894
97.340999 56.736942 36.271515
103.123401 54.509342 32.168633
51.358802 24.969040 119.473386
52.356842 61.189095 46.394058
71.334628 43.692192 56.037168
94.015062 23.531017 77.059834
58.885783 62.897585 48.391023
109.523043 59.970969 120.284091
59.122963 45.298892 81.351088
48.540538 50.687188 149.779932
107.595270 23.980959 105.497404
70.413879 41.350930 177.856585
66.298183 69.220312 184.805215
58.356754 42.931707 50.894924
34.122667 65.158687 67.808698
112.741769 56.519317 118.722774
117.284910 59.617960 93.787854
61.227657 26.632700 92.773200
88.368685 51.787280 223.578268
47.849989 34.186770 126.633005
67.187312 28.400192 83.549947
97.818142 61.605325 212.948858
104.572061 66.327068 118.760811
104.783356 69.497078 80.566068
71.685662 27.785580 76.978520
91.936972 54.629667 138.916536
46.386497 46.945610 151.650857
59.769421 15.288419 118.076229
118.775172 55.225569 94.436371
69.828437 51.258856 62.092952
101.414066 72.323473 80.257149
67.133813 67.126315 87.654949
52.908568 39.802966 66.706911
68.496019 57.361895 203.506482
104.291525 58.805039 58.892462
53.001040 52.349775 133.193821
41.232315 52.362596 69.098181
70.450496 13.373599 105.052203
62.940830 32.981206 59.483219
110.269161 64.271535 113.931917
64.071386 19.230367 100.824306
98.188097 70.784505 67.967844
85.334182 67.498478 127.128664
98.620482 30.910256 68.326777
94.593978 76.673781 102.555817
81.682349 37.599110 60.542817
79.824130 31.440424 145.406380
44.143664 62.680418 45.849412
46.444005 48.335788 143.193599
96.141669 74.527770 74.518152
58.765659 39.442015 174.608300
117.558623 47.647242 86.219786
92.560429 25.729896 137.998931
64.255929 33.679222 80.708326
53.461424 21.495517 120.532507
56.338342 29.032276 156.418114
80.429785 71.865345 189.127517
59.855285 20.428308 107.077184
55.248472 37.486529 97.547875
93.192781 30.525756 67.183774
53.259923 47.752684 175.421635
89.325550 39.983340 142.863177
67.908222 68.020595 86.673840
84.918031 61.227864 180.171534
53.393485 51.463947 161.240588
80.290111 42.807125 58.853166
66.980101 63.994517 56.941571
52.059909 23.227559 124.385366
78.904563 35.524462 148.129405
59.889540 50.438946 49.128569
67.723039 49.466221 54.831827
106.549653 51.845779 30.770354
101.135846 56.078312 132.986670
95.807834 37.032740 49.710955
70.317255 55.216130 204.800905
53.999433 34.650232 104.043543
70.958609 69.997823 81.413943
65.053004 63.969151 195.779207
62.773827 61.693732 126.265984
39.460342 48.668040 59.974036
88.684949 76.268978 84.804441
66.637675 69.159687 189.771005
117.185368 37.684100 101.763608
112.490915 56.269488 119.213834
83.416378 80.800193 224.559687
110.564369 29.572838 114.717953
99.622222 66.614012 62.840483
81.089509 11.703289 101.789112
110.191845 41.789884 68.877530
95.705170 77.615060 220.726219
54.798342 36.829447 61.446815
47.182218 74.206667 52.503682
102.068073 55.320665 48.528514
70.578295 45.842485 155.408808
48.674546 42.310978 162.488667
99.075140 38.745379 46.210619
97.177929 76.012526 86.287743
97.076176 57.331517 38.726284
90.382750 50.892135 140.597300
71.884041 11.379880 119.582533
45.777529 41.865664 157.991453
49.682668 44.969677 119.700616
68.729595 35.116408 167.235119
88.752347 69.472169 192.529631
76.076822 69.142390 70.379905
48.172818 37.803728 124.400529
55.780326 54.778994 75.706251
53.460021 71.338709 69.452717
72.729207 56.249373 146.005117
62.257950 33.285316 69.270637
42.850614 47.735193 66.919731
83.630402 51.640848 183.182265
56.686702 47.104786 180.344587
67.691187 18.590240 137.890828
56.049642 52.529396 101.593822
73.630218 52.098574 150.015199
84.057060 75.090121 77.964003
100.246049 20.238432 89.704349
77.385541 14.536724 95.705111
108.783857 27.874207 84.589665
76.156934 34.163414 62.743077
67.433425 48.070285 53.754947
72.295647 57.378869 66.300415
60.291609 63.070509 184.747981
63.021779 33.948140 167.564513
62.240996 62.951686 67.468859
71.970536 38.750509 158.675684
59.919421 64.583895 173.094303
66.249677 14.689058 107.844495
92.677760 73.024323 204.568726
94.437154 35.809425 140.367271
21.108440 72.283890 54.068889
80.119466 47.705972 204.087669
97.270948 15.344767 105.189099
74.863022 72.245048 79.350036
65.994520 42.066088 179.757423
44.588501 54.723408 46.482726
29.169269 64.041538 62.045274
52.935034 50.931968 155.903393
106.231098 44.758144 46.464175
108.124128 49.714742 64.132401
99.606058 68.426932 216.611234
107.225159 43.853627 39.485502
86.758455 52.739388 211.691745
57.489301 21.317245 109.767756
98.566455 51.212030 137.389964
80.427566 74.174266 80.249248
52.860114 51.689834 169.489742
89.176874 37.656526 50.293603
93.878676 17.286230 128.635193
110.937857 27.134599 99.848972
38.496495 75.312014 53.235822
55.290363 17.341480 125.289500
87.303016 77.040144 99.985687
60.992058 53.305292 188.774501
25.422986 68.941408 50.082631
70.276009 70.249186 110.790430
86.393891 11.821891 113.985470
62.286001 41.155475 178.624468
104.410148 43.569635 57.464500
57.475343 66.653336 50.239666
44.888569 37.983154 151.013852
107.328393 71.289489 96.786801
94.757523 54.001536 218.376317
99.835801 69.754949 67.562316
77.106870 77.482295 213.419707
74.419735 72.156155 227.045965
89.367076 35.410231 57.133211
65.319478 65.874167 111.862975
96.759022 19.643805 87.547124
110.086826 26.824585 106.234044
82.864613 59.747645 136.792076
96.564782 73.265499 212.085472
92.666624 59.498235 136.184371
76.343935 72.693536 94.797358
111.858631 67.403711 104.416853
102.812598 38.601721 35.007680
81.400207 24.231392 141.010978
87.632392 12.872956 97.961277
118.376014 50.808641 104.639383
74.002216 8.923826 125.406932
89.507806 52.829923 47.263409
29.137485 66.232412 50.412421
76.903679 46.531930 181.810788
69.909988 59.998939 206.618623
114.757103 34.618142 107.745351
55.046757 54.751918 113.595984
81.574051 26.863850 72.692996
103.084883 26.346697 128.507375
113.288129 29.480564 93.349545
104.990258 37.255858 65.553326
116.889177 57.571455 82.866578
57.308562 71.892074 64.051623
83.018948 75.249316 90.050625
31.274337 69.347205 48.700034
117.108760 58.280762 106.292301
51.150097 44.744394 113.348924
95.427892 75.466052 88.388575
94.453118 66.571168 125.856980
74.482376 18.810165 89.559945
45.065626 58.435095 45.809878
68.823477 44.770276 185.907295
84.944643 57.226542 179.300968
99.081165 53.050823 136.682694
72.769972 39.981860 161.112518
90.927052 73.943240 202.082126
95.620216 20.645081 84.326897
61.599125 33.465954 166.637024
62.052194 59.000034 88.582523
80.830934 66.161784 129.677140
84.855131 14.738660 130.158321
109.009704 56.947266 65.706726
58.185029 34.524223 168.016195
70.110715 53.049711 202.615323
103.861327 40.216440 47.114831
62.915883 16.241494 109.777247
110.833740 56.883516 121.348986
82.569861 51.117527 183.214288
78.372869 48.529286 148.023619
84.666512 10.742946 112.613597
95.072004 18.848923 129.540309
60.229481 20.416709 134.975754
74.686004 47.121582 151.480693
106.389254 47.510846 48.778551
52.407588 34.918616 164.297888
82.656603 55.221209 140.148616
105.304733 72.399773 95.002577
111.961045 65.925953 89.643084
93.299548 53.099328 217.864911
48.271496 35.704107 121.832398
77.431761 63.075931 168.997053
92.484542 23.046744 77.333563
94.293248 22.965668 134.705577
91.328241 42.359237 142.121531
100.776537 72.981739 108.340901
37.881190 76.475119 54.807872
57.943832 53.954998 151.504956
92.386321 58.783676 51.480066
56.079709 53.294573 106.847172
100.758163 72.797604 80.943229
74.451188 10.689834 120.239263
34.513922 76.241920 63.279461
92.456168 69.331725 122.912945
83.543219 68.005875 126.027821
59.559823 42.782408 82.277645
54.787489 53.686136 46.921285
44.342953 48.964364 69.330785
59.404941 59.496136 116.114014
98.249534 70.295322 118.737096
100.179326 29.680747 71.029442
91.396631 51.633630 140.168653
48.921312 44.324661 132.375646
71.832740 59.900254 135.819538
66.077112 34.504926 168.038545
63.182750 51.246833 154.521949
87.923645 56.775824 187.687140
63.009491 40.456382 177.724499
104.687626 56.306673 129.555896
48.394416 39.916628 162.286506
80.974880 60.040575 173.144377
111.153395 61.285402 75.410200
81.986332 57.771123 174.059305
74.642908 69.072976 122.967709
81.759608 75.306583 111.304181
75.478618 15.001355 95.344902
61.114194 38.553560 53.923888
106.701691 24.487341 115.651101
76.442453 76.984380 214.406938
113.875620 62.227344 109.399062
59.016690 59.142224 112.979458
115.789268 55.041761 111.744217
77.818976 73.306536 89.347691
92.960439 14.472526 98.266264
100.600967 38.795723 31.491696
87.021061 71.685770 193.503226
111.618836 44.591579 70.057164
62.188012 18.529589 133.907236
85.438905 51.625870 193.863324
71.989584 66.057548 70.703480
55.500390 60.556823 46.750731
63.069090 51.732840 190.558168
67.678815 68.410004 110.436515
76.416818 44.447257 170.222714
66.726876 68.989611 78.300111
77.367510 73.204960 94.120995
53.385065 39.693670 102.083279
108.722768 65.632599 114.338056
35.160909 57.117640 52.189745
67.195749 69.709155 184.825304
110.641601 28.079904 108.675660
93.979014 76.280283 210.591114
53.282669 53.103170 169.927067
104.798891 69.147758 114.926771
78.146935 35.439926 62.961696
45.409581 43.423479 157.284495
49.806933 46.037482 120.203952
118.070559 55.095332 89.252880
84.075562 53.072899 223.418223
73.040689 54.390746 208.824241
39.957374 59.672381 71.089932
86.799080 51.971376 217.269646
35.016365 67.805075 48.862890
86.041216 53.133088 181.658528
97.115965 67.817244 62.822188
92.298382 57.280600 137.267405
84.045681 12.947387 126.818953
101.151375 57.352313 36.862290
109.583776 58.188964 66.970255
117.249804 60.678641 102.678927
93.241702 29.581360 139.247266
83.473262 18.828249 136.035360
113.590551 54.688243 73.011970
116.085327 38.278211 107.447600
90.459559 39.344510 142.431137
59.392296 29.871229 93.268922
79.308702 59.106114 61.101666
47.940351 48.751438 70.584621
98.655711 35.190132 62.002886
47.545979 67.666160 46.368955
77.279513 46.541984 171.047562
30.790279 60.108073 61.543440
112.856586 29.696807 90.799568
111.483370 66.388550 89.798293
103.999583 53.449836 51.885617
107.338261 61.702270 121.731920
96.474573 21.581388 131.358429
108.219800 63.361411 69.478845
45.280663 60.486453 73.097346
53.589194 46.386375 175.522806
81.131335 42.856566 56.118290
73.315687 61.124101 215.921705
71.953501 37.968407 168.428361
34.442066 54.527985 62.268195
70.619015 18.732878 92.204300
62.180202 35.128254 57.242217
70.471896 64.271324 208.675996
59.278692 23.795721 102.835506
83.852283 13.354582 127.714921
54.559554 42.612843 51.423242
107.758086 39.360780 67.175993
73.267130 61.290403 166.180647
87.844044 63.174708 186.363878
93.801237 19.406123 85.963976
51.157311 75.150686 56.316278
113.508538 66.037242 99.966699
60.268604 45.186151 76.213292
112.761819 55.991405 72.094301
97.892660 73.868181 215.517932
79.434953 74.490396 85.520473
102.456221 65.663287 64.768802
42.168340 58.905400 72.331107
49.785687 33.002542 157.497466
28.965416 64.220489 61.849871
52.524583 51.383935 153.334711
110.912204 50.470824 68.604668
94.959188 59.684095 207.107418
75.280937 60.526544 65.692742
90.333589 11.670800 111.210066
94.393994 66.138817 59.930892
107.396163 27.561846 121.592566
45.290742 69.433803 47.055825
88.042548 30.359212 67.308445
56.504422 15.744152 126.120595
64.332171 66.275035 79.383825
114.826596 63.261640 105.400224
51.504321 39.164889 167.979502
52.032777 55.046521 72.847408
75.425722 42.329753 59.900039
108.722645 29.008232 120.278528
64.562169 68.177381 173.547749
64.946287 54.659344 159.433154
105.395624 47.480131 60.385313
31.999883 57.413258 58.168969
58.283909 45.652106 86.616239
92.935805 18.929286 86.378682
74.755990 55.460973 144.828044
107.191369 65.942337 115.636521
66.953775 61.270758 201.251529
63.343266 62.763230 50.920393
74.030653 44.408184 162.600282
72.161280 65.639995 217.144483
58.345655 48.551226 85.904100
69.002420 68.722514 112.878041
56.267142 54.948080 126.640866
81.570650 75.274123 98.106243
80.938357 47.405117 55.236397
60.919806 41.747726 51.906404
28.286583 65.455293 61.550725
101.756355 74.006201 104.146881
66.688246 66.184855 89.824782
107.462877 51.381320 128.678283
23.970031 69.459167 57.713935
105.575726 60.782072 63.778158
52.096095 22.237600 132.265440
75.172749 70.640565 181.461745
72.102281 73.093425 205.202132
75.221196 59.630017 65.111790
66.784535 60.172045 131.950992
70.991127 65.369774 70.794099
55.405095 36.500007 60.299201
93.490440 71.686660 205.293848
74.982007 57.788963 165.237648
24.088132 69.555138 58.008636
65.129458 34.467638 75.314012
94.589906 68.026792 124.223865
93.084946 72.115712 204.638360
101.113110 74.823313 94.113543
65.337718 50.867426 52.678501
80.293086 38.950188 147.733775
49.970110 47.525721 122.331538
44.780029 68.764100 71.852552
75.372795 72.823114 84.961786
49.275651 27.083793 125.352017
81.394908 66.118145 129.916373
31.147276 81.750795 53.141781
101.493398 26.348458 77.266755
71.026097 69.911678 113.388552
68.407053 44.018970 183.836337
47.209136 49.781284 47.754597
95.870264 36.242076 56.280502
53.315338 63.456639 72.790740
93.983663 39.959112 31.778073
55.275465 38.234846 67.657237
83.960816 75.546093 96.864820
65.927883 11.674440 121.428180
86.690586 50.558383 200.369104
84.627577 11.390618 114.987371
63.613123 68.570888 57.001514
70.332231 22.931003 142.195831
63.518281 62.588985 66.159758
113.131000 35.997915 117.457345
90.846966 36.170641 53.179682
66.863487 12.999484 114.307705
44.981345 43.366963 156.402228
110.314584 67.377037 109.170158
96.491555 69.537038 209.682049
118.520449 50.998899 103.852373
104.316600 45.984933 133.792837
71.552755 36.676307 156.856252
91.672302 57.160227 49.875181
60.273539 24.450293 100.093971
101.919415 21.692452 125.248636
94.022307 57.650003 203.570586
55.187411 21.949050 133.505705
84.863201 66.517605 185.016843
62.599303 61.483538 100.259597
83.447113 76.056135 100.162864
92.804353 72.233874 203.955530
105.580505 69.013134 75.946767
94.326074 53.815478 220.509889
43.496302 60.301592 46.039222
55.987591 39.805245 174.091802
106.750703 68.723711 113.364993
102.609669 57.142742 39.944800
104.310224 43.359527 59.656832
63.081139 64.262960 102.323172
87.205282 80.866980 222.627068
68.158436 57.445336 146.265458
27.687655 75.572362 61.328860
108.038630 59.153656 65.097489
89.323347 80.199575 218.995541
57.569930 57.785308 140.512577
49.008564 31.164784 118.952457
85.064039 47.507134 142.883376
61.243276 45.579335 183.450776
79.703209 62.172592 62.609096
65.475412 34.383694 168.080113
108.089003 62.205640 119.840690
114.097306 59.156103 112.516192
50.945597 32.027133 157.124905
97.121131 22.444636 81.068971
105.266011 37.525808 131.226136
50.748853 53.418278 142.988079
83.223511 41.017215 54.605122
56.777582 53.946985 161.084673
63.229164 64.862087 103.428915
53.344849 66.970160 48.449865
118.104047 54.443071 106.943512
89.447113 33.832619 60.652621
64.908287 63.804784 118.639769
91.485819 22.748847 77.508891
67.691343 71.143363 178.899741
57.215628 23.992689 142.669342
100.863538 18.650466 116.363890
